-0.500000 -24.709371 -24.709371 2 1 0
-0.499737 -24.711353 -24.711353 1 1 0
-0.499474 -24.713335 -24.713335 1 1 0
-0.498948 -24.717299 -24.717299 1 1 0
-0.497898 -24.725227 -24.725227 1 1 0
-0.495797 -24.741084 -24.741084 1 1 0
-0.491605 -24.772797 -24.772797 1 1 0
-0.483248 -24.836229 -24.836229 1 1 0
-0.475208 -24.897646 -24.897646 1 1 0
-0.475208 -24.897646 -24.897646 2 1 0
-0.462280 -24.996778 -24.996778 2 1 0
-0.449462 -25.095923 -25.095923 2 1 0
-0.436746 -25.195082 -25.195082 2 1 0
-0.424132 -25.294254 -25.294254 2 1 0
-0.411621 -25.393440 -25.393440 2 1 0
-0.399216 -25.492640 -25.492640 2 1 0
-0.386917 -25.591854 -25.591854 2 1 0
-0.374727 -25.691083 -25.691083 2 1 0
-0.362645 -25.790325 -25.790325 2 1 0
-0.350673 -25.889580 -25.889580 2 1 0
-0.338813 -25.988850 -25.988850 2 1 0
-0.327066 -26.088134 -26.088134 2 1 0
-0.315432 -26.187432 -26.187432 2 1 0
-0.303913 -26.286744 -26.286744 2 1 0
-0.292509 -26.386070 -26.386070 2 1 0
-0.281222 -26.485410 -26.485410 2 1 0
-0.270052 -26.584763 -26.584763 2 1 0
-0.259001 -26.684130 -26.684130 2 1 0
-0.248068 -26.783511 -26.783511 2 1 0
-0.237256 -26.882906 -26.882906 2 1 0
-0.226563 -26.982314 -26.982314 2 1 0
-0.215992 -27.081735 -27.081735 2 1 0
-0.205542 -27.181170 -27.181170 2 1 0
-0.195214 -27.280618 -27.280618 2 1 0
-0.185008 -27.380079 -27.380079 2 1 0
-0.174926 -27.479553 -27.479553 2 1 0
-0.164967 -27.579040 -27.579040 2 1 0
-0.155131 -27.678539 -27.678539 2 1 0
-0.145420 -27.778052 -27.778052 2 1 0
-0.135832 -27.877576 -27.877576 2 1 0
-0.126369 -27.977113 -27.977113 2 1 0
-0.117031 -28.076662 -28.076662 2 1 0
-0.107817 -28.176223 -28.176223 2 1 0
-0.098728 -28.275796 -28.275796 2 1 0
-0.089764 -28.375381 -28.375381 2 1 0
-0.080924 -28.474977 -28.474977 2 1 0
-0.072209 -28.574585 -28.574585 2 1 0
-0.063618 -28.674203 -28.674203 2 1 0
-0.055152 -28.773833 -28.773833 2 1 0
-0.046810 -28.873473 -28.873473 2 1 0
-0.038593 -28.973124 -28.973124 2 1 0
-0.030498 -29.072786 -29.072786 2 1 0
-0.022528 -29.172457 -29.172457 2 1 0
-0.014680 -29.272139 -29.272139 2 1 0
-0.006955 -29.371831 -29.371831 2 1 0
0.000647 -29.471532 -29.471532 2 1 0
0.008128 -29.571243 -29.571243 2 1 0
0.015487 -29.670963 -29.670963 2 1 0
0.022725 -29.770692 -29.770692 2 1 0
0.029843 -29.870430 -29.870430 2 1 0
0.036841 -29.970177 -29.970177 2 1 0
0.043720 -30.069932 -30.069932 2 1 0
0.050479 -30.169696 -30.169696 2 1 0
0.057121 -30.269468 -30.269468 2 1 0
0.063646 -30.369248 -30.369248 2 1 0
0.070053 -30.469035 -30.469035 2 1 0
0.076345 -30.568831 -30.568831 2 1 0
0.082521 -30.668633 -30.668633 2 1 0
0.088583 -30.768443 -30.768443 2 1 0
0.094532 -30.868260 -30.868260 2 1 0
0.100367 -30.968084 -30.968084 2 1 0
0.106090 -31.067914 -31.067914 2 1 0
0.111702 -31.167751 -31.167751 2 1 0
0.117203 -31.267594 -31.267594 2 1 0
0.122595 -31.367444 -31.367444 2 1 0
0.127879 -31.467299 -31.467299 2 1 0
0.133054 -31.567160 -31.567160 2 1 0
0.138123 -31.667027 -31.667027 2 1 0
0.143086 -31.766899 -31.766899 2 1 0
0.147944 -31.866777 -31.866777 2 1 0
0.152698 -31.966659 -31.966659 2 1 0
0.157349 -32.066547 -32.066547 2 1 0
0.161898 -32.166440 -32.166440 2 1 0
0.166346 -32.266337 -32.266337 2 1 0
0.170694 -32.366238 -32.366238 2 1 0
0.174943 -32.466144 -32.466144 2 1 0
0.179094 -32.566055 -32.566055 2 1 0
0.183148 -32.665969 -32.665969 2 1 0
0.187106 -32.765888 -32.765888 2 1 0
0.190969 -32.865810 -32.865810 2 1 0
0.194738 -32.965736 -32.965736 2 1 0
0.198415 -33.065665 -33.065665 2 1 0
0.202000 -33.165598 -33.165598 2 1 0
0.205494 -33.265534 -33.265534 2 1 0
0.208898 -33.365473 -33.365473 2 1 0
0.212214 -33.465416 -33.465416 2 1 0
0.215443 -33.565361 -33.565361 2 1 0
0.218585 -33.665309 -33.665309 2 1 0
0.221642 -33.765260 -33.765260 2 1 0
0.224615 -33.865214 -33.865214 2 1 0
0.227504 -33.965170 -33.965170 2 1 0
0.230311 -34.065128 -34.065128 2 1 0
0.233037 -34.165089 -34.165089 2 1 0
0.235684 -34.265052 -34.265052 2 1 0
0.238251 -34.365017 -34.365017 2 1 0
0.240741 -34.464984 -34.464984 2 1 0
0.243153 -34.564953 -34.564953 2 1 0
0.245490 -34.664924 -34.664924 2 1 0
0.247752 -34.764897 -34.764897 2 1 0
0.249941 -34.864871 -34.864871 2 1 0
0.252057 -34.964847 -34.964847 2 1 0
0.254102 -35.064825 -35.064825 2 1 0
0.256076 -35.164804 -35.164804 2 1 0
0.257980 -35.264784 -35.264784 2 1 0
0.259817 -35.364766 -35.364766 2 1 0
0.261585 -35.464749 -35.464749 2 1 0
0.263288 -35.564733 -35.564733 2 1 0
0.264925 -35.664719 -35.664719 2 1 0
0.266497 -35.764705 -35.764705 2 1 0
0.268007 -35.864692 -35.864692 2 1 0
0.269454 -35.964681 -35.964681 2 1 0
0.270839 -36.064670 -36.064670 2 1 0
0.272164 -36.164660 -36.164660 2 1 0
0.273430 -36.264651 -36.264651 2 1 0
0.274637 -36.364643 -36.364643 2 1 0
0.275787 -36.464635 -36.464635 2 1 0
0.276880 -36.564629 -36.564629 2 1 0
0.277917 -36.664622 -36.664622 2 1 0
0.278900 -36.764617 -36.764617 2 1 0
0.279829 -36.864611 -36.864611 2 1 0
0.280705 -36.964607 -36.964607 2 1 0
0.281530 -37.064603 -37.064603 2 1 0
0.282303 -37.164599 -37.164599 2 1 0
0.283026 -37.264596 -37.264596 2 1 0
0.283700 -37.364593 -37.364593 2 1 0
0.284325 -37.464590 -37.464590 2 1 0
0.284903 -37.564588 -37.564588 2 1 0
0.285434 -37.664586 -37.664586 2 1 0
0.285919 -37.764584 -37.764584 2 1 0
0.286360 -37.864582 -37.864582 2 1 0
0.286756 -37.964581 -37.964581 2 1 0
0.287109 -38.064580 -38.064580 2 1 0
0.287419 -38.164579 -38.164579 2 1 0
0.287688 -38.264578 -38.264578 2 1 0
0.287916 -38.364577 -38.364577 2 1 0
0.287999 -38.406505 -38.406505 2 1 0
0.287999 -38.406505 -38.406505 1 1 0
0.288170 -38.506504 -38.506504 1 1 0
0.288302 -38.606503 -38.606503 1 1 0
0.288396 -38.706503 -38.706503 1 1 0
0.288453 -38.806503 -38.806503 1 1 0
0.288472 -38.906502 -38.906502 1 1 0
0.288472 -38.910382 -38.910382 1 1 0
0.288472 -38.910382 -38.910382 2 1 0
0.288454 -39.010382 -39.010382 2 1 0
0.288401 -39.110382 -39.110382 2 1 0
0.288313 -39.210381 -39.210381 2 1 0
0.288192 -39.310381 -39.310381 2 1 0
0.288037 -39.410380 -39.410380 2 1 0
0.287850 -39.510380 -39.510380 2 1 0
0.287631 -39.610379 -39.610379 2 1 0
0.287381 -39.710379 -39.710379 2 1 0
0.287101 -39.810378 -39.810378 2 1 0
0.286791 -39.910377 -39.910377 2 1 0
0.286451 -40.010376 -40.010376 2 1 0
0.286084 -40.110375 -40.110375 2 1 0
0.285688 -40.210374 -40.210374 2 1 0
0.285265 -40.310373 -40.310373 2 1 0
0.284816 -40.410372 -40.410372 2 1 0
0.284340 -40.510371 -40.510371 2 1 0
0.283839 -40.610369 -40.610369 2 1 0
0.283314 -40.710368 -40.710368 2 1 0
0.282764 -40.810366 -40.810366 2 1 0
0.282190 -40.910364 -40.910364 2 1 0
0.281594 -41.010362 -41.010362 2 1 0
0.280975 -41.110360 -41.110360 2 1 0
0.280333 -41.210358 -41.210358 2 1 0
0.279671 -41.310355 -41.310355 2 1 0
0.278987 -41.410353 -41.410353 2 1 0
0.278283 -41.510350 -41.510350 2 1 0
0.277560 -41.610347 -41.610347 2 1 0
0.276816 -41.710344 -41.710344 2 1 0
0.276054 -41.810341 -41.810341 2 1 0
0.275274 -41.910338 -41.910338 2 1 0
0.274476 -42.010335 -42.010335 2 1 0
0.273660 -42.110331 -42.110331 2 1 0
0.272828 -42.210328 -42.210328 2 1 0
0.271979 -42.310324 -42.310324 2 1 0
0.271114 -42.410320 -42.410320 2 1 0
0.270233 -42.510316 -42.510316 2 1 0
0.269337 -42.610312 -42.610312 2 1 0
0.268427 -42.710308 -42.710308 2 1 0
0.267503 -42.810304 -42.810304 2 1 0
0.266564 -42.910299 -42.910299 2 1 0
0.265613 -43.010294 -43.010294 2 1 0
0.264648 -43.110290 -43.110290 2 1 0
0.263671 -43.210285 -43.210285 2 1 0
0.262681 -43.310280 -43.310280 2 1 0
0.261680 -43.410275 -43.410275 2 1 0
0.260667 -43.510270 -43.510270 2 1 0
0.259644 -43.610264 -43.610264 2 1 0
0.258610 -43.710259 -43.710259 2 1 0
0.257565 -43.810253 -43.810253 2 1 0
0.256511 -43.910248 -43.910248 2 1 0
0.255447 -44.010242 -44.010242 2 1 0
0.254374 -44.110236 -44.110236 2 1 0
0.253292 -44.210230 -44.210230 2 1 0
0.252202 -44.310224 -44.310224 2 1 0
0.251103 -44.410218 -44.410218 2 1 0
0.249997 -44.510212 -44.510212 2 1 0
0.248883 -44.610206 -44.610206 2 1 0
0.247762 -44.710199 -44.710199 2 1 0
0.246634 -44.810193 -44.810193 2 1 0
0.245500 -44.910187 -44.910187 2 1 0
0.244359 -45.010180 -45.010180 2 1 0
0.243213 -45.110173 -45.110173 2 1 0
0.242060 -45.210167 -45.210167 2 1 0
0.240903 -45.310160 -45.310160 2 1 0
0.239740 -45.410153 -45.410153 2 1 0
0.238573 -45.510146 -45.510146 2 1 0
0.237400 -45.610139 -45.610139 2 1 0
0.236224 -45.710133 -45.710133 2 1 0
0.235044 -45.810126 -45.810126 2 1 0
0.233860 -45.910118 -45.910118 2 1 0
0.232673 -46.010111 -46.010111 2 1 0
0.231482 -46.110104 -46.110104 2 1 0
0.230288 -46.210097 -46.210097 2 1 0
0.229092 -46.310090 -46.310090 2 1 0
0.227894 -46.410083 -46.410083 2 1 0
0.226693 -46.510076 -46.510076 2 1 0
0.225490 -46.610068 -46.610068 2 1 0
0.224285 -46.710061 -46.710061 2 1 0
0.223079 -46.810054 -46.810054 2 1 0
0.221872 -46.910046 -46.910046 2 1 0
0.220663 -47.010039 -47.010039 2 1 0
0.219454 -47.110032 -47.110032 2 1 0
0.218244 -47.210024 -47.210024 2 1 0
0.217033 -47.310017 -47.310017 2 1 0
0.215823 -47.410010 -47.410010 2 1 0
0.214612 -47.510002 -47.510002 2 1 0
0.213401 -47.609995 -47.609995 2 1 0
0.212191 -47.709988 -47.709988 2 1 0
0.210982 -47.809980 -47.809980 2 1 0
0.209773 -47.909973 -47.909973 2 1 0
0.208565 -48.009966 -48.009966 2 1 0
0.207359 -48.109959 -48.109959 2 1 0
0.206153 -48.209951 -48.209951 2 1 0
0.204950 -48.309944 -48.309944 2 1 0
0.203748 -48.409937 -48.409937 2 1 0
0.202547 -48.509930 -48.509930 2 1 0
0.201349 -48.609922 -48.609922 2 1 0
0.200153 -48.709915 -48.709915 2 1 0
0.198960 -48.809908 -48.809908 2 1 0
0.197769 -48.909901 -48.909901 2 1 0
0.196580 -49.009894 -49.009894 2 1 0
0.195395 -49.109887 -49.109887 2 1 0
0.194213 -49.209880 -49.209880 2 1 0
0.193033 -49.309873 -49.309873 2 1 0
0.191858 -49.409866 -49.409866 2 1 0
0.190685 -49.509859 -49.509859 2 1 0
0.189517 -49.609852 -49.609852 2 1 0
0.188352 -49.709846 -49.709846 2 1 0
0.187191 -49.809839 -49.809839 2 1 0
0.186034 -49.909832 -49.909832 2 1 0
0.184881 -50.009826 -50.009826 2 1 0
0.183733 -50.109819 -50.109819 2 1 0
0.182590 -50.209812 -50.209812 2 1 0
0.181451 -50.309806 -50.309806 2 1 0
0.180316 -50.409799 -50.409799 2 1 0
0.179187 -50.509793 -50.509793 2 1 0
0.178063 -50.609787 -50.609787 2 1 0
0.176944 -50.709781 -50.709781 2 1 0
0.175830 -50.809774 -50.809774 2 1 0
0.174722 -50.909768 -50.909768 2 1 0
0.173619 -51.009762 -51.009762 2 1 0
0.172523 -51.109756 -51.109756 2 1 0
0.171432 -51.209750 -51.209750 2 1 0
0.170347 -51.309744 -51.309744 2 1 0
0.169268 -51.409738 -51.409738 2 1 0
0.168195 -51.509733 -51.509733 2 1 0
0.167128 -51.609727 -51.609727 2 1 0
0.166069 -51.709721 -51.709721 2 1 0
0.165015 -51.809716 -51.809716 2 1 0
0.163969 -51.909710 -51.909710 2 1 0
0.162929 -52.009705 -52.009705 2 1 0
0.161896 -52.109700 -52.109700 2 1 0
0.160870 -52.209694 -52.209694 2 1 0
0.159852 -52.309689 -52.309689 2 1 0
0.158841 -52.409684 -52.409684 2 1 0
0.157837 -52.509679 -52.509679 2 1 0
0.156840 -52.609674 -52.609674 2 1 0
0.155852 -52.709669 -52.709669 2 1 0
0.154871 -52.809664 -52.809664 2 1 0
0.153898 -52.909660 -52.909660 2 1 0
0.152933 -53.009655 -53.009655 2 1 0
0.151976 -53.109651 -53.109651 2 1 0
0.151027 -53.209646 -53.209646 2 1 0
0.150087 -53.309642 -53.309642 2 1 0
0.149155 -53.409637 -53.409637 2 1 0
0.148232 -53.509633 -53.509633 2 1 0
0.147317 -53.609629 -53.609629 2 1 0
0.146411 -53.709625 -53.709625 2 1 0
0.145514 -53.809621 -53.809621 2 1 0
0.144627 -53.909617 -53.909617 2 1 0
0.143748 -54.009613 -54.009613 2 1 0
0.142878 -54.109609 -54.109609 2 1 0
0.142018 -54.209605 -54.209605 2 1 0
0.141168 -54.309602 -54.309602 2 1 0
0.140327 -54.409598 -54.409598 2 1 0
0.139495 -54.509595 -54.509595 2 1 0
0.138674 -54.609592 -54.609592 2 1 0
0.137862 -54.709588 -54.709588 2 1 0
0.137061 -54.809585 -54.809585 2 1 0
0.136270 -54.909582 -54.909582 2 1 0
0.135489 -55.009579 -55.009579 2 1 0
0.134719 -55.109576 -55.109576 2 1 0
0.133959 -55.209573 -55.209573 2 1 0
0.133210 -55.309570 -55.309570 2 1 0
0.132472 -55.409568 -55.409568 2 1 0
0.131744 -55.509565 -55.509565 2 1 0
0.131028 -55.609562 -55.609562 2 1 0
0.130323 -55.709560 -55.709560 2 1 0
0.129629 -55.809557 -55.809557 2 1 0
0.128947 -55.909555 -55.909555 2 1 0
0.128277 -56.009553 -56.009553 2 1 0
0.127618 -56.109551 -56.109551 2 1 0
0.126971 -56.209549 -56.209549 2 1 0
0.126336 -56.309547 -56.309547 2 1 0
0.125713 -56.409545 -56.409545 2 1 0
0.125103 -56.509543 -56.509543 2 1 0
0.124505 -56.609541 -56.609541 2 1 0
0.123920 -56.709539 -56.709539 2 1 0
0.123347 -56.809538 -56.809538 2 1 0
0.122788 -56.909536 -56.909536 2 1 0
0.122241 -57.009535 -57.009535 2 1 0
0.121708 -57.109533 -57.109533 2 1 0
0.121188 -57.209532 -57.209532 2 1 0
0.120682 -57.309531 -57.309531 2 1 0
0.120189 -57.409530 -57.409530 2 1 0
0.119711 -57.509528 -57.509528 2 1 0
0.119246 -57.609527 -57.609527 2 1 0
0.118796 -57.709526 -57.709526 2 1 0
0.118360 -57.809525 -57.809525 2 1 0
0.117939 -57.909525 -57.909525 2 1 0
0.117532 -58.009524 -58.009524 2 1 0
0.117141 -58.109523 -58.109523 2 1 0
0.116765 -58.209522 -58.209522 2 1 0
0.116404 -58.309522 -58.309522 2 1 0
0.116059 -58.409521 -58.409521 2 1 0
0.115730 -58.509520 -58.509520 2 1 0
0.115416 -58.609520 -58.609520 2 1 0
0.115119 -58.709520 -58.709520 2 1 0
0.114839 -58.809519 -58.809519 2 1 0
0.114575 -58.909519 -58.909519 2 1 0
0.114328 -59.009519 -59.009519 2 1 0
0.114098 -59.109518 -59.109518 2 1 0
0.113886 -59.209518 -59.209518 2 1 0
0.113692 -59.309518 -59.309518 2 1 0
0.113515 -59.409518 -59.409518 2 1 0
0.113357 -59.509518 -59.509518 2 1 0
0.113217 -59.609518 -59.609518 2 1 0
0.113096 -59.709518 -59.709518 2 1 0
0.112994 -59.809517 -59.809517 2 1 0
0.112911 -59.909517 -59.909517 2 1 0
0.112848 -60.009517 -60.009517 2 1 0
0.112805 -60.109517 -60.109517 2 1 0
0.112783 -60.209517 -60.209517 2 1 0
0.112779 -60.269489 -60.269489 2 1 0
0.112779 -60.269489 -60.269489 1 1 0
0.112789 -60.369489 -60.369489 1 1 0
0.112821 -60.469489 -60.469489 1 1 0
0.112874 -60.569489 -60.569489 1 1 0
0.112949 -60.669489 -60.669489 1 1 0
0.113047 -60.769489 -60.769489 1 1 0
0.113167 -60.869489 -60.869489 1 1 0
0.113309 -60.969489 -60.969489 1 1 0
0.113476 -61.069489 -61.069489 1 1 0
0.113666 -61.169488 -61.169488 1 1 0
0.113881 -61.269488 -61.269488 1 1 0
0.114120 -61.369488 -61.369488 1 1 0
0.114385 -61.469488 -61.469488 1 1 0
0.114675 -61.569487 -61.569487 1 1 0
0.114991 -61.669487 -61.669487 1 1 0
0.115334 -61.769486 -61.769486 1 1 0
0.115705 -61.869485 -61.869485 1 1 0
0.116102 -61.969485 -61.969485 1 1 0
0.116529 -62.069484 -62.069484 1 1 0
0.116984 -62.169483 -62.169483 1 1 0
0.117468 -62.269482 -62.269482 1 1 0
0.117983 -62.369480 -62.369480 1 1 0
0.118528 -62.469479 -62.469479 1 1 0
0.119104 -62.569477 -62.569477 1 1 0
0.119713 -62.669475 -62.669475 1 1 0
0.120354 -62.769473 -62.769473 1 1 0
0.121029 -62.869471 -62.869471 1 1 0
0.121737 -62.969469 -62.969469 1 1 0
0.122481 -63.069466 -63.069466 1 1 0
0.123260 -63.169463 -63.169463 1 1 0
0.124076 -63.269459 -63.269459 1 1 0
0.124929 -63.369456 -63.369456 1 1 0
0.125821 -63.469452 -63.469452 1 1 0
0.126752 -63.569448 -63.569448 1 1 0
0.127723 -63.669443 -63.669443 1 1 0
0.128735 -63.769438 -63.769438 1 1 0
0.129789 -63.869432 -63.869432 1 1 0
0.130887 -63.969426 -63.969426 1 1 0
0.132028 -64.069420 -64.069420 1 1 0
0.133216 -64.169413 -64.169413 1 1 0
0.134450 -64.269405 -64.269405 1 1 0
0.135732 -64.369397 -64.369397 1 1 0
0.137063 -64.469388 -64.469388 1 1 0
0.138445 -64.569379 -64.569379 1 1 0
0.139878 -64.669368 -64.669368 1 1 0
0.141366 -64.769357 -64.769357 1 1 0
0.142908 -64.869345 -64.869345 1 1 0
0.144506 -64.969333 -64.969333 1 1 0
0.146163 -65.069319 -65.069319 1 1 0
0.147880 -65.169304 -65.169304 1 1 0
0.149658 -65.269288 -65.269288 1 1 0
0.151501 -65.369271 -65.369271 1 1 0
0.153408 -65.469253 -65.469253 1 1 0
0.155383 -65.569234 -65.569234 1 1 0
0.157428 -65.669213 -65.669213 1 1 0
0.159545 -65.769191 -65.769191 1 1 0
0.161736 -65.869167 -65.869167 1 1 0
0.164004 -65.969141 -65.969141 1 1 0
0.166351 -66.069113 -66.069113 1 1 0
0.168780 -66.169084 -66.169084 1 1 0
0.171294 -66.269052 -66.269052 1 1 0
0.173896 -66.369019 -66.369019 1 1 0
0.176588 -66.468982 -66.468982 1 1 0
0.179375 -66.568944 -66.568944 1 1 0
0.182259 -66.668902 -66.668902 1 1 0
0.185245 -66.768858 -66.768858 1 1 0
0.188335 -66.868810 -66.868810 1 1 0
0.191534 -66.968759 -66.968759 1 1 0
0.194846 -67.068704 -67.068704 1 1 0
0.198276 -67.168645 -67.168645 1 1 0
0.201829 -67.268582 -67.268582 1 1 0
0.205508 -67.368514 -67.368514 1 1 0
0.209320 -67.468442 -67.468442 1 1 0
0.213269 -67.568364 -67.568364 1 1 0
0.217363 -67.668280 -67.668280 1 1 0
0.221606 -67.768190 -67.768190 1 1 0
0.226005 -67.868093 -67.868093 1 1 0
0.230568 -67.967989 -67.967989 1 1 0
0.235302 -68.067877 -68.067877 1 1 0
0.240214 -68.167756 -68.167756 1 1 0
0.245313 -68.267626 -68.267626 1 1 0
0.250608 -68.367486 -68.367486 1 1 0
0.256108 -68.467334 -68.467334 1 1 0
0.261823 -68.567171 -68.567171 1 1 0
0.267763 -68.666994 -68.666994 1 1 0
0.273941 -68.766803 -68.766803 1 1 0
0.280369 -68.866597 -68.866597 1 1 0
0.287059 -68.966373 -68.966373 1 1 0
0.294026 -69.066130 -69.066130 1 1 0
0.301284 -69.165866 -69.165866 1 1 0
0.308850 -69.265579 -69.265579 1 1 0
0.316741 -69.365267 -69.365267 1 1 0
0.324976 -69.464928 -69.464928 1 1 0
0.333575 -69.564557 -69.564557 1 1 0
0.342560 -69.664153 -69.664153 1 1 0
0.351954 -69.763711 -69.763711 1 1 0
0.361782 -69.863227 -69.863227 1 1 0
0.372072 -69.962696 -69.962696 1 1 0
0.382853 -70.062113 -70.062113 1 1 0
0.394159 -70.161472 -70.161472 1 1 0
0.406023 -70.260765 -70.260765 1 1 0
0.418485 -70.359986 -70.359986 1 1 0
0.431586 -70.459124 -70.459124 1 1 0
0.445370 -70.558170 -70.558170 1 1 0
0.459889 -70.657110 -70.657110 1 1 0
0.475195 -70.755932 -70.755932 1 1 0
0.491348 -70.854618 -70.854618 1 1 0
0.508413 -70.953152 -70.953152 1 1 0
0.526461 -71.051510 -71.051510 1 1 0
0.545569 -71.149667 -71.149667 1 1 0
0.565824 -71.247594 -71.247594 1 1 0
0.587318 -71.345257 -71.345257 1 1 0
0.610153 -71.442615 -71.442615 1 1 0
0.634442 -71.539620 -71.539620 1 1 0
0.660306 -71.636218 -71.636218 1 1 0
0.687877 -71.732342 -71.732342 1 1 0
0.717299 -71.827915 -71.827915 1 1 0
0.748726 -71.922849 -71.922849 1 1 0
0.782322 -72.017036 -72.017036 1 1 0
0.818260 -72.110355 -72.110355 1 1 0
0.856720 -72.202664 -72.202664 1 1 0
0.897885 -72.293798 -72.293798 1 1 0
0.941936 -72.383573 -72.383573 1 1 0
0.989048 -72.471780 -72.471780 1 1 0
1.039380 -72.558190 -72.558190 1 1 0
1.093060 -72.642559 -72.642559 1 1 0
1.150200 -72.724628 -72.724628 1 1 0
1.210850 -72.804140 -72.804140 1 1 0
1.275000 -72.880847 -72.880847 1 1 0
1.342620 -72.954520 -72.954520 1 1 0
1.413590 -73.024970 -73.024970 1 1 0
1.487760 -73.092051 -73.092051 1 1 0
1.564910 -73.155669 -73.155669 1 1 0
1.644820 -73.215791 -73.215791 1 1 0
1.727230 -73.272434 -73.272434 1 1 0
1.811880 -73.325668 -73.325668 1 1 0
1.898520 -73.375601 -73.375601 1 1 0
1.986910 -73.422375 -73.422375 1 1 0
2.076820 -73.466152 -73.466152 1 1 0
2.168050 -73.507109 -73.507109 1 1 0
2.260410 -73.545427 -73.545427 1 1 0
2.353760 -73.581288 -73.581288 1 1 0
2.447960 -73.614869 -73.614869 1 1 0
2.542870 -73.646339 -73.646339 1 1 0
-0.475196 -24.897646 -24.897646 4 2 0
-0.475220 -24.896048 -24.898877 4 2 0
-0.475220 -24.894300 -24.900626 4 2 0
-0.475220 -24.888550 -24.906383 4 2 0
-0.475218 -24.852488 -24.942509 3 2 0
-0.475216 -24.829906 -24.965180 3 2 0
-0.475208 -24.784803 -25.010577 3 2 0
-0.475180 -24.694814 -25.101581 3 2 0
-0.475106 -24.554808 -25.244329 3 2 0
-0.474993 -24.415514 -25.387734 3 2 0
-0.474842 -24.277032 -25.531764 3 2 0
-0.474652 -24.139355 -25.676397 3 2 0
-0.474423 -24.002540 -25.821583 3 2 0
-0.474156 -23.866510 -25.967337 3 2 0
-0.473851 -23.731341 -26.113619 3 2 0
-0.473506 -23.597006 -26.260457 3 2 0
-0.473123 -23.463630 -26.407767 3 2 0
-0.472701 -23.331178 -26.555541 3 2 0
-0.472240 -23.199715 -26.703768 3 2 0
-0.471740 -23.069186 -26.852394 3 2 0
-0.471200 -22.939641 -27.001414 3 2 0
-0.470622 -22.810953 -27.150669 3 2 0
-0.470004 -22.683391 -27.300379 3 2 0
-0.469347 -22.556862 -27.450414 3 2 0
-0.468649 -22.431489 -27.600849 3 2 0
-0.467913 -22.306991 -27.751482 3 2 0
-0.467136 -22.183564 -27.902377 3 2 0
-0.466319 -22.061221 -28.053683 3 2 0
-0.465463 -21.939978 -28.205134 3 2 0
-0.464565 -21.819849 -28.356790 3 2 0
-0.463628 -21.700910 -28.508594 3 2 0
-0.462650 -21.583035 -28.660606 3 2 0
-0.461631 -21.466310 -28.812767 3 2 0
-0.460571 -21.350977 -28.964625 3 2 0
-0.459471 -21.236554 -29.117051 3 2 0
-0.458329 -21.123313 -29.269572 3 2 0
-0.457146 -21.011323 -29.422518 3 2 0
-0.455922 -20.900579 -29.575152 3 2 0
-0.454656 -20.791053 -29.727829 3 2 0
-0.453348 -20.682424 -29.880224 3 2 0
-0.451998 -20.575303 -30.032972 3 2 0
-0.450607 -20.469426 -30.185719 3 2 0
-0.449174 -20.364583 -30.338400 3 2 0
-0.447698 -20.261122 -30.491101 3 2 0
-0.446180 -20.158924 -30.643756 3 2 0
-0.444620 -20.057994 -30.796408 3 2 0
-0.443017 -19.958336 -30.948929 3 2 0
-0.441371 -19.859961 -31.101363 3 2 0
-0.439683 -19.762931 -31.253710 3 2 0
-0.437952 -19.667080 -31.405936 3 2 0
-0.436178 -19.572530 -31.558039 3 2 0
-0.434361 -19.479863 -31.709787 3 2 0
-0.432501 -19.387861 -31.861625 3 2 0
-0.430598 -19.297174 -32.013305 3 2 0
-0.428652 -19.207822 -32.163247 3 2 0
-0.426663 -19.119942 -32.314489 3 2 0
-0.424630 -19.033399 -32.465546 3 2 0
-0.422554 -18.947675 -32.616343 3 2 0
-0.420435 -18.863755 -32.766999 3 2 0
-0.418273 -18.781187 -32.917440 3 2 0
-0.416068 -18.699630 -33.068438 3 2 0
-0.413819 -18.619715 -33.218436 3 2 0
-0.411527 -18.541165 -33.368190 3 2 0
-0.409191 -18.463965 -33.519021 3 2 0
-0.406813 -18.388079 -33.668295 3 2 0
-0.404391 -18.313571 -33.817292 3 2 0
-0.401926 -18.240509 -33.964853 3 2 0
-0.399419 -18.168756 -34.113257 3 2 0
-0.396868 -18.098395 -34.261364 3 2 0
-0.394274 -18.029703 -34.409416 3 2 0
-0.391638 -17.962104 -34.556884 3 2 0
-0.388959 -17.895911 -34.704019 3 2 0
-0.386238 -17.831490 -34.851984 3 2 0
-0.383474 -17.768241 -34.998465 3 2 0
-0.380668 -17.706413 -35.144593 3 2 0
-0.377820 -17.645565 -35.290343 3 2 0
-0.374930 -17.586557 -35.435725 3 2 0
-0.371998 -17.528984 -35.580726 3 2 0
-0.369024 -17.472315 -35.725162 3 2 0
-0.366010 -17.417560 -35.869367 3 2 0
-0.362954 -17.364255 -36.013164 3 2 0
-0.359857 -17.312391 -36.156897 3 2 0
-0.356720 -17.261983 -36.299887 3 2 0
-0.353542 -17.213040 -36.442445 3 2 0
-0.350324 -17.165716 -36.584092 3 2 0
-0.347066 -17.119696 -36.725822 3 2 0
-0.343769 -17.075158 -36.867100 3 2 0
-0.340432 -17.032931 -37.007814 3 2 0
-0.337056 -16.991349 -37.148053 3 2 0
-0.333642 -16.951265 -37.287805 3 2 0
-0.330189 -16.912782 -37.426667 3 2 0
-0.326698 -16.875710 -37.565599 3 2 0
-0.323170 -16.840151 -37.704028 3 2 0
-0.319604 -16.806284 -37.841150 3 2 0
-0.316002 -16.773826 -37.978582 3 2 0
-0.312363 -16.742891 -38.115485 3 2 0
-0.308688 -16.712748 -38.253016 3 2 0
-0.304977 -16.684858 -38.388709 3 2 0
-0.301231 -16.658507 -38.523839 3 2 0
-0.297451 -16.634348 -38.657841 3 2 0
-0.293636 -16.611097 -38.791933 3 2 0
-0.289787 -16.589409 -38.925436 3 2 0
-0.285905 -16.568217 -39.057102 3 2 0
-0.281990 -16.549646 -39.189126 3 2 0
-0.278042 -16.532650 -39.320859 3 2 0
-0.274063 -16.517329 -39.453063 3 2 0
-0.270053 -16.503502 -39.583530 3 2 0
-0.266011 -16.491265 -39.713349 3 2 0
-0.261940 -16.480873 -39.841799 3 2 0
-0.257839 -16.471785 -39.970393 3 2 0
-0.253708 -16.464296 -40.098311 3 2 0
-0.249550 -16.459211 -40.225956 3 2 0
-0.245363 -16.455044 -40.352364 3 2 0
-0.241149 -16.452469 -40.478061 3 2 0
-0.236908 -16.450573 -40.602523 3 2 0
-0.232642 -16.451244 -40.726665 3 2 0
-0.228350 -16.453550 -40.850061 3 2 0
-0.224033 -16.457410 -40.973751 3 2 0
-0.219692 -16.462996 -41.095778 3 2 0
-0.215328 -16.470233 -41.217030 3 2 0
-0.210941 -16.479669 -41.337930 3 2 0
-0.206533 -16.490000 -41.457689 3 2 0
-0.202102 -16.501979 -41.576640 3 2 0
-0.197652 -16.515013 -41.695138 3 2 0
-0.193182 -16.530337 -41.812722 3 2 0
-0.188692 -16.547326 -41.929468 3 2 0
-0.184184 -16.566448 -42.044406 3 2 0
-0.179659 -16.586974 -42.159704 3 2 0
-0.175117 -16.609187 -42.274131 3 2 0
-0.170559 -16.633337 -42.387615 3 2 0
-0.165986 -16.658676 -42.499929 3 2 0
-0.161398 -16.685584 -42.611331 3 2 0
-0.156797 -16.714642 -42.722049 3 2 0
-0.152183 -16.744912 -42.832183 3 2 0
-0.147558 -16.776844 -42.941375 3 2 0
-0.142921 -16.810291 -43.049311 3 2 0
-0.138274 -16.845974 -43.156208 3 2 0
-0.133618 -16.883372 -43.262121 3 2 0
-0.128954 -16.921093 -43.367625 3 2 0
-0.124282 -16.961686 -43.472227 3 2 0
-0.119604 -17.003994 -43.575814 3 2 0
-0.114920 -17.048952 -43.678164 3 2 0
-0.110231 -17.094851 -43.779748 3 2 0
-0.105539 -17.142108 -43.880275 3 2 0
-0.100843 -17.189698 -43.979321 3 2 0
-0.096146 -17.240389 -44.077432 3 2 0
-0.091448 -17.292801 -44.174443 3 2 0
-0.086750 -17.347828 -44.269788 3 2 0
-0.082054 -17.403867 -44.365296 3 2 0
-0.077359 -17.461292 -44.459945 3 2 0
-0.072668 -17.520024 -44.554260 3 2 0
-0.067981 -17.581111 -44.646164 3 2 0
-0.063299 -17.643458 -44.736887 3 2 0
-0.058624 -17.706311 -44.825790 3 2 0
-0.053956 -17.771934 -44.914876 3 2 0
-0.049297 -17.839259 -45.002742 3 2 0
-0.044647 -17.909238 -45.087734 3 2 0
-0.040008 -17.979586 -45.173497 3 2 0
-0.035381 -18.051613 -45.257997 3 2 0
-0.030767 -18.126609 -45.341140 3 2 0
-0.026167 -18.201827 -45.423094 3 2 0
-0.021583 -18.278566 -45.503741 3 2 0
-0.017015 -18.356473 -45.582207 3 2 0
-0.012465 -18.436871 -45.659733 3 2 0
-0.007934 -18.518914 -45.735907 3 2 0
-0.003423 -18.602454 -45.813192 3 2 0
0.001066 -18.687720 -45.887507 3 2 0
0.005533 -18.774598 -45.960430 3 2 0
0.009976 -18.861550 -46.030708 3 2 0
0.014393 -18.950735 -46.101562 3 2 0
0.018784 -19.041466 -46.170983 3 2 0
0.023147 -19.134026 -46.236003 3 2 0
0.027481 -19.227516 -46.302620 3 2 0
0.031785 -19.322489 -46.368448 3 2 0
0.036057 -19.419132 -46.432308 3 2 0
0.040295 -19.516699 -46.495263 3 2 0
0.044500 -19.615666 -46.556715 3 2 0
0.048668 -19.716822 -46.615970 3 2 0
0.052799 -19.817916 -46.673558 3 2 0
0.056892 -19.920304 -46.729620 3 2 0
0.060945 -20.024104 -46.786971 3 2 0
0.064957 -20.129292 -46.840569 3 2 0
0.068926 -20.235667 -46.892625 3 2 0
0.072851 -20.341891 -46.945179 3 2 0
0.076731 -20.449580 -46.994980 3 2 0
0.080565 -20.558295 -47.043230 3 2 0
0.084350 -20.668188 -47.090444 3 2 0
0.088086 -20.778279 -47.135950 3 2 0
0.091772 -20.889218 -47.179914 3 2 0
0.095405 -21.001579 -47.222915 3 2 0
0.098985 -21.114355 -47.264030 3 2 0
0.102511 -21.226927 -47.303629 3 2 0
0.105981 -21.339401 -47.343387 3 2 0
0.109393 -21.452425 -47.380455 3 2 0
0.112748 -21.565842 -47.416051 3 2 0
0.116043 -21.679603 -47.450827 3 2 0
0.119277 -21.793330 -47.485219 3 2 0
0.122449 -21.907177 -47.518186 3 2 0
0.125558 -22.020589 -47.548996 3 2 0
0.128603 -22.133912 -47.578427 3 2 0
0.131583 -22.247043 -47.608029 3 2 0
0.134497 -22.359318 -47.636125 3 2 0
0.137344 -22.470942 -47.662326 3 2 0
0.140122 -22.582027 -47.688321 3 2 0
0.142832 -22.692680 -47.712824 3 2 0
0.145472 -22.801559 -47.737308 3 2 0
0.148041 -22.909528 -47.760688 3 2 0
0.150539 -23.016727 -47.782909 3 2 0
0.152966 -23.122721 -47.803917 3 2 0
0.155320 -23.227443 -47.823990 3 2 0
0.157601 -23.328490 -47.844294 3 2 0
0.159809 -23.429099 -47.862991 3 2 0
0.161944 -23.528052 -47.882002 3 2 0
0.164006 -23.625579 -47.900994 3 2 0
0.165994 -23.721025 -47.918758 3 2 0
0.167909 -23.813297 -47.935888 3 2 0
0.169751 -23.902394 -47.952860 3 2 0
0.171520 -23.990515 -47.969136 3 2 0
0.173218 -24.076359 -47.984936 3 2 0
0.174844 -24.159378 -48.001819 3 2 0
0.176400 -24.238971 -48.017870 3 2 0
0.177886 -24.316064 -48.033547 3 2 0
0.179303 -24.391725 -48.048485 3 2 0
0.180654 -24.464471 -48.064470 3 2 0
0.181939 -24.533088 -48.080158 3 2 0
0.183160 -24.598766 -48.094922 3 2 0
0.184319 -24.661885 -48.110514 3 2 0
0.185417 -24.722400 -48.126191 3 2 0
0.186456 -24.780760 -48.141628 3 2 0
0.187438 -24.835701 -48.156926 3 2 0
0.188365 -24.888133 -48.172028 3 2 0
0.189239 -24.938545 -48.187462 3 2 0
0.190062 -24.985532 -48.202870 3 2 0
0.190836 -25.030178 -48.218068 3 2 0
0.191564 -25.073099 -48.232972 3 2 0
0.192246 -25.112708 -48.248131 3 2 0
0.192886 -25.150195 -48.263538 3 2 0
0.193486 -25.186456 -48.278427 3 2 0
0.194046 -25.219334 -48.293573 3 2 0
0.194570 -25.250334 -48.308436 3 2 0
0.195059 -25.279554 -48.323108 3 2 0
0.195515 -25.307029 -48.337502 3 2 0
0.195940 -25.332899 -48.351596 3 2 0
0.196335 -25.357031 -48.366090 3 2 0
0.196702 -25.379868 -48.379838 3 2 0
0.197043 -25.401369 -48.393492 3 2 0
0.197359 -25.419954 -48.407270 3 2 0
0.197651 -25.437389 -48.420316 3 2 0
0.197922 -25.453677 -48.433100 3 2 0
0.198172 -25.469355 -48.445738 3 2 0
0.198402 -25.484096 -48.458240 3 2 0
0.198615 -25.497950 -48.470375 3 2 0
0.198810 -25.509074 -48.481838 3 2 0
0.198989 -25.519751 -48.493173 3 2 0
0.199154 -25.529686 -48.504272 3 2 0
0.199304 -25.538966 -48.514862 3 2 0
0.199442 -25.547700 -48.525121 3 2 0
0.199567 -25.555892 -48.534924 3 2 0
0.199681 -25.562469 -48.544199 3 2 0
0.199785 -25.569179 -48.553210 3 2 0
0.199879 -25.575502 -48.562011 3 2 0
0.199964 -25.580863 -48.570295 3 2 0
0.200041 -25.585209 -48.578067 3 2 0
0.200110 -25.589258 -48.585520 3 2 0
0.200172 -25.594498 -48.592563 3 2 0
0.200227 -25.598920 -48.599373 3 2 0
0.200277 -25.601883 -48.605766 3 2 0
0.200321 -25.608377 -48.611609 3 2 0
0.200360 -25.609515 -48.617146 3 2 0
0.200395 -25.610508 -48.622442 3 2 0
0.200425 -25.610438 -48.627221 3 2 0
0.200452 -25.613131 -48.631784 3 2 0
0.200476 -25.615342 -48.636016 3 2 0
0.200496 -25.615696 -48.639843 3 2 0
0.200514 -25.617670 -48.643344 3 2 0
0.200529 -25.617613 -48.646644 3 2 0
0.200542 -25.616832 -48.649662 3 2 0
0.200554 -25.618220 -48.652345 3 2 0
0.200563 -25.619809 -48.654767 3 2 0
0.200572 -25.619670 -48.656955 3 2 0
0.200579 -25.619374 -48.658908 3 2 0
0.200584 -25.619229 -48.660686 3 2 0
0.200589 -25.620520 -48.662260 3 2 0
0.200593 -25.621842 -48.663683 3 2 0
0.200596 -25.623178 -48.664927 3 2 0
0.200599 -25.622549 -48.666003 3 2 0
0.200601 -25.621651 -48.666944 3 2 0
0.200603 -25.620955 -48.667755 4 2 0
0.200604 -25.620253 -48.668449 4 2 0
0.200606 -25.620286 -48.669039 4 2 0
0.200606 -25.620633 -48.669539 4 2 0
0.200607 -25.622807 -48.669966 4 2 0
0.200608 -25.621797 -48.670318 4 2 0
0.200608 -25.621046 -48.670609 4 2 0
0.200608 -25.620498 -48.670836 4 2 0
0.200609 -25.620915 -48.671041 4 2 0
0.200609 -25.621745 -48.671208 4 2 0
0.200609 -25.622134 -48.671344 4 2 0
0.200609 -25.621242 -48.671446 4 2 0
0.200609 -25.620679 -48.671526 4 2 0
0.200609 -25.620493 -48.671582 4 2 0
0.200609 -25.620801 -48.671632 4 2 0
0.200609 -25.621582 -48.671670 4 2 0
0.200609 -25.621452 -48.671695 4 2 0
0.200609 -25.620765 -48.671717 4 2 0
0.200609 -25.620492 -48.671733 4 2 0
0.200609 -25.621454 -48.671744 4 2 0
0.200609 -25.620746 -48.671751 4 2 0
0.200609 -25.620508 -48.671758 4 2 0
0.200609 -25.620969 -48.671761 4 2 0
0.200609 -25.620524 -48.671764 4 2 0
0.200609 -25.620609 -48.671765 4 2 0
0.200609 -25.621992 -48.671766 4 2 0
0.200609 -25.623784 -48.671767 4 2 0
0.200609 -25.624813 -48.671767 4 2 0
0.200609 -25.620981 -48.671767 4 2 0
0.200609 -25.620511 -48.671768 4 2 0
0.200609 -25.620682 -48.671768 4 2 0
0.200609 -25.623645 -48.671768 4 2 0
0.200609 -25.624654 -48.671768 4 2 0
0.200609 -25.622717 -48.671768 4 2 0
0.200609 -25.620497 -48.671769 4 2 0
0.200609 -25.620796 -48.671769 4 2 0
0.200609 -25.621991 -48.671769 4 2 0
0.200609 -25.621277 -48.671769 4 2 0
0.200609 -25.620550 -48.671768 4 2 0
0.200609 -25.620681 -48.671768 4 2 0
0.200609 -25.621476 -48.671768 4 2 0
0.200609 -25.623554 -48.671768 4 2 0
0.200609 -25.625242 -48.671768 4 2 0
0.200609 -25.623952 -48.671769 4 2 0
0.200609 -25.624168 -48.671768 4 2 0
0.200609 -25.621981 -48.671768 4 2 0
0.200609 -25.622363 -48.671769 4 2 0
0.200609 -25.620869 -48.671769 4 2 0
0.200609 -25.620527 -48.671768 4 2 0
0.200609 -25.621078 -48.671769 4 2 0
0.200609 -25.623311 -48.671768 4 2 0
0.200609 -25.625844 -48.671768 4 2 0
0.200609 -25.622610 -48.671769 4 2 0
0.200609 -25.620836 -48.671768 4 2 0
0.200609 -25.620614 -48.671768 4 2 0
0.200609 -25.621021 -48.671774 4 2 0
0.200609 -25.623717 -48.671771 4 2 0
0.200609 -25.625285 -48.671769 4 2 0
0.200609 -25.620570 -48.671794 4 2 0
0.200609 -25.621165 -48.671780 4 2 0
0.200609 -25.624624 -48.671773 4 2 0
0.200609 -25.623446 -48.671784 4 2 0
0.200609 -25.620849 -48.671775 4 2 0
0.200609 -25.620904 -48.671770 4 2 0
0.200609 -25.620684 -48.671769 4 2 0
0.200609 -25.621317 -48.671768 4 2 0
0.200609 -25.626352 -48.671768 4 2 0
0.200609 -25.622377 -48.671776 4 2 0
0.200609 -25.620495 -48.671770 4 2 0
0.200609 -25.623433 -48.671769 4 2 0
0.200609 -25.620519 -48.671794 4 2 0
0.200609 -25.623104 -48.671775 4 2 0
0.200609 -25.626819 -48.671769 4 2 0
0.200609 -25.620530 -48.671772 4 2 0
0.200609 -25.624112 -48.671768 4 2 0
0.200609 -25.624364 -48.671767 4 2 0
0.200609 -25.623910 -48.671778 4 2 0
0.200609 -25.620717 -48.671769 4 2 0
0.200609 -25.631689 -48.671768 4 2 0
